ply
format ascii 1.0
element vertex 1539
property float x
property float y
property float z
property uchar red
property uchar green
property uchar blue
end_header
3.4145e-11 2.34006e-10 -1.70902e-09 
-7.64114e+32 1.99261e+33 -1.44194e+34 
-5.36931e-18 1.33207e-17 -9.63955e-17 
-5.52078e+28 1.15763e+29 -8.37752e+29 
-3.91724e-22 7.89078e-22 -5.70328e-21 
11.518 2.61058 -19.2471 
8.94874 2.319 -17.0202 
7.56269 2.16097 -15.9235 
10.6492 3.23268 -23.8545 
1.90997e+13 8.70058e+13 -6.42525e+14 
3.26432e+23 1.64072e+24 -1.21172e+25 
1.85475e+17 5.926e+18 -4.36633e+19 
-8.54815e+20 1.56822e+21 -1.14599e+22 
-1.63212e-20 1.28325e-20 -9.20582e-20 
9.14289 2.31438 -17.2098 
8.79764 2.33633 -17.2579 
8.59631 2.30193 -16.9734 
5.94479 2.23281 -16.6982 
5.53806 2.17437 -16.2587 
-3.43414e+30 2.96615e+31 -2.20539e+32 
-2.42387e-23 4.8261e-23 -3.58022e-22 
-4.90093e-22 7.74581e-22 -5.70357e-21 
10.1015 3.03655 -22.7982 
5.61595 2.14567 -16.2161 
4.41149 1.73596 -13.1174 
0.50119 0.298504 -2.26085 
3.06141e+10 1.97899e+10 -1.49756e+11 
1.86131e-13 8.6799e-13 -6.55407e-12 
2.19796e+14 1.36176e+15 -1.02804e+16 
-1.75419e-21 3.09867e-21 -2.31166e-20 
-3.0678e-36 2.5028e-36 -1.83362e-35 
15.3668 3.00435 -22.7144 
11.5644 2.47975 -19.4287 
7.45538 2.11232 -16.0476 
5.75099 2.15671 -16.4755 
5.45277e+31 2.23438e+31 -1.70198e+32 
5.66719e-30 2.77203e-30 -2.1161e-29 
3.02825e-28 1.71974e-28 -1.3139e-27 
inf inf -inf 
8.15586e+15 5.44082e+15 -4.16156e+16 
7.4064e+25 6.9285e+27 -5.27233e+28 
-3.08959e+23 1.59874e+24 -1.21172e+25 
-5.05077e+31 1.16633e+32 -8.82132e+32 
-2.78257e-06 3.85154e-06 -2.89848e-05 
19.8801 4.0018 -25.9593 
15.0472 2.94448 -22.4666 
9.16585 2.25952 -17.3062 
8.89656 2.28074 -17.4037 
0.175301 0.0813337 -0.62764 
547895 284906 -2.19793e+06 
0.121192 0.0637551 -0.491765 
2.80078e+25 1.02494e+26 -7.90958e+26 
1.50564e+19 8.5287e+19 -6.58114e+20 
136.672 1119.75 -8632.72 
-2.88195e-28 6.84887e-28 -5.25508e-27 
-1.88621e-25 1.86132e-25 -1.3924e-24 
-8.42496e-22 7.03821e-22 -5.26545e-21 
10.7135 1.85702 -14.4353 
6.24723 2.17591 -17.0672 
6.11581 2.1679 -17.0202 
5.45474 2.05952 -16.0894 
4.31326 1.71868 -13.402 
0.165709 0.0669423 -0.521817 
4.91255e+11 3.11668e+11 -2.43753e+12 
-2.29415e+16 3.46879e+17 -2.69584e+18 
-412367 1.13513e+06 -8.79229e+06 
-3.363e+30 7.09105e+30 -5.47463e+31 
9.36245 2.24014 -17.5023 
9.26386 2.23275 -17.4529 
23.8322 6.92948 -54.1958 
3.69888e+30 1.72254e+30 -1.35912e+31 
4.52741 2.51991 -19.9225 
0.497709 0.284212 -2.24621 
1.35268e+21 2.3592e+22 -1.85702e+23 
-6.42856e+22 9.61404e+22 -7.47584e+23 
10.7301 2.12537 -16.8347 
1.21248e+11 7.52012e+10 -6.02439e+11 
2.9526e+10 1.86827e+10 -1.49756e+11 
-1.52842e+23 1.50474e+24 -1.19613e+25 
-4.1337e+24 6.32824e+24 -4.97656e+25 
9.30915 2.19765 -17.5023 
11.1131 3.40819 -27.7055 
0.128921 0.0602504 -0.486444 
7.41015e+24 2.40351e+25 -1.93875e+26 
311135 1.08966e+06 -8.78892e+06 
9.39896e+22 3.73139e+23 -3.00969e+24 
5.87605e+10 3.00472e+11 -2.42357e+12 
7.28426e+25 6.42074e+27 -5.16509e+28 
-8.64557e+33 2.91971e+34 -2.34098e+35 
-2.52922e-17 4.83933e-17 -3.89095e-16 
-7.71119e+22 9.44726e+22 -7.47659e+23 
-2.20864e-22 1.81207e-22 -1.4191e-21 
11.4727 1.86858 -15.2929 
5.91265 2.04406 -16.8347 
4.36208 1.63047 -13.3153 
-1.76492e-13 8.06982e-13 -6.55385e-12 
77.3793 13.9206 -98.0685 
9.41556 1.87774 -12.4563 
9.45395 2.17715 -17.6523 
8.70461 2.37898 -19.49 
5.90713 1.6866 -13.7909 
5.78539 1.65545 -13.6688 
5.5815 1.95724 -16.2161 
0.617315 0.238677 -1.97013 
0.376944 0.161685 -1.33632 
4.6996e-30 2.42068e-30 -2.00201e-29 
2.85822e+28 1.57352e+28 -1.30142e+29 
9.6414e+21 5.56951e+21 -4.61307e+22 
1.97324e+27 6.25859e+27 -5.16509e+28 
-3.41922e+09 7.3184e+10 -6.02439e+11 
-3.59529e+14 5.14882e+15 -4.23792e+16 
-1.44848e-19 1.82893e-19 -1.48608e-18 
-5.78274e-17 4.72386e-17 -3.78743e-16 
-1.24943 0.990906 -7.95114 
10.1029 2.7281 -22.5486 
10.9469 3.27784 -27.5818 
88.2954 35.6459 -298.094 
2.5797 1.25338 -10.472 
9.51499e+09 7.21477e+10 -6.02439e+11 
1.01027e+18 2.11895e+19 -1.7683e+20 
-1.1895e-08 5.31637e-08 -4.41949e-07 
-5.69715e+09 1.72726e+10 -1.43263e+11 
-7.58745e-29 1.56096e-28 -1.29721e-27 
74.5751 13.1961 -95.051 
10.5118 1.97736 -16.5639 
9.05806 2.14184 -17.552 
7.33447 1.85767 -15.5625 
41.3019 11.5264 -95.051 
52.3868 15.0863 -128.715 
0.283315 0.106485 -0.900104 
0.366179 0.157223 -1.33177 
0.151764 0.0684163 -0.578964 
2.84911e+37 1.5478e+37 -1.30866e+38 
0.00429142 0.0155816 -0.131725 
-0.000136491 0.000225606 -0.00188274 
-3.78709e-24 2.67015e-24 -2.18951e-23 
7.61499 1.88244 -15.9646 
6.60187 1.68516 -14.2686 
59.2278 17.0623 -147.103 
4.30012e+26 1.56627e+26 -1.34208e+27 
4.98897e-30 2.33992e-30 -2.00191e-29 
0.510436 0.2479 -2.12138 
1.84326e+26 9.21814e+25 -7.90958e+26 
8.41859e+18 5.08223e+18 -4.36633e+19 
-6.19446e+21 2.14257e+22 -1.82209e+23 
-1.37897e-13 1.93799e-13 -1.63088e-12 
-1.19804e+27 1.50503e+27 -1.26553e+28 
11.8376 1.77958 -15.4845 
11.2456 1.73775 -15.1801 
10.461 1.92847 -16.5639 
7.24092 1.7945 -15.4073 
1.10949 0.405046 -3.51041 
0.873465 0.386433 -3.35053 
1.02276e+28 5.86731e+27 -5.09599e+28 
4.00795e+18 2.02693e+19 -1.75726e+20 
-9.77931e+06 6.62877e+07 -5.72072e+08 
-1.47551e+32 4.15958e+32 -3.57912e+33 
-1.21441e-19 1.74298e-19 -1.48605e-18 
48.1939 13.4345 -118.814 
6.47154 1.97085 -17.4529 
6.40678 1.96641 -17.4037 
0.404517 0.147064 -1.29145 
inf inf -inf 
6.35732e-21 2.45759e-21 -2.15684e-20 
0.164421 0.0660325 -0.580157 
0.138737 0.0562673 -0.494469 
0.122388 0.0576658 -0.505886 
1.25139e+38 6.52923e+37 -inf 
1.40754e-06 7.7141e-07 -6.77724e-06 
-6.78578e-26 1.5581e-25 -1.35678e-24 
-5.99844e-26 3.98036e-26 -3.37754e-25 
7.24016 1.75203 -15.4073 
6.53401 1.95045 -17.5023 
2.78507e+30 1.52708e+30 -1.35912e+31 
-3.4771e+32 1.63164e+33 -1.44202e+34 
-1.25523e+18 4.76901e+18 -4.21085e+19 
10.714 2.15538 -19.3678 
7.38037 1.74743 -15.5625 
8.91445 2.37935 -21.5272 
6.24695 1.91203 -17.3548 
5.96828e+34 2.60153e+34 -2.34098e+35 
9.91257e+21 5.11192e+21 -4.61306e+22 
1.39069e+22 8.30062e+22 -7.47565e+23 
9.0308e+18 7.80982e+19 -7.02939e+20 
-1.96088e+25 2.27716e+25 -1.9774e+26 
11.2897 1.66661 -15.2929 
10.8193 2.11507 -19.3072 
9.20272 1.97239 -17.7538 
6.31076 1.89011 -17.3548 
5.59971 1.77213 -16.2161 
4.16275 1.3548 -12.4563 
0.614348 0.213887 -1.96013 
4.34958e+31 2.41534e+31 -2.20545e+32 
4.25189e+31 2.40915e+31 -2.20533e+32 
1.03036e+31 5.95053e+30 -5.47463e+31 
1.34718e+21 8.22236e+22 -7.47584e+23 
-4.52293e+09 5.86552e+10 -5.32635e+11 
-2.82203e+10 6.66556e+10 -6.02439e+11 
-5.22229e+34 1.01635e+35 -9.16254e+35 
9.08848 1.9453 -17.7538 
0.537126 0.210153 -1.94353 
8.07173e+26 3.45112e+26 -3.185e+27 
5.87819 3.39876 -31.9698 
11.7046 2.08045 -20.458 
10.8583 2.07516 -19.4287 
9.26036 1.92496 -17.8564 
7.7063 1.7377 -16.0894 
6.64431 1.54437 -14.2686 
8.58365 2.21827 -20.9434 
6.18852 1.84559 -17.3548 
1.86136e-12 7.34101e-13 -6.87695e-12 
6.91442e+22 3.36324e+22 -3.15252e+23 
0.0138364 0.0525076 -0.491863 
8.06751e+28 1.4532e+30 -1.35886e+31 
-3.01405e+25 8.50317e+25 -7.90938e+26 
-36923 58199.6 -537761 
11.7742 1.62629 -15.5625 
11.3761 1.60944 -15.3689 
8.03041 1.76904 -16.6084 
5.9206 1.48938 -13.6688 
5.88277 1.48054 -13.7602 
7.88094 2.03232 -19.4287 
4.09362 1.3003 -12.4563 
1.7338 0.583834 -5.5963 
2.81717e+24 1.28618e+24 -1.21966e+25 
-7.07162e+24 5.31862e+24 -4.87853e+25 
11.8006 1.59288 -15.4845 
10.8747 2.03233 -19.5516 
6.40305 1.78197 -17.2579 
5.62491 1.67089 -16.0894 
0.199259 0.0748788 -0.721317 
-6.23402e-26 3.7231e-26 -3.4508e-25 
5.90753 1.41699 -13.8839 
5.7357 1.40792 -13.8527 
0.547134 0.216295 -2.11271 
1.39604e+30 5.65336e+30 -5.51332e+31 
11.8191 1.57269 -15.6413 
11.3688 1.54805 -15.4073 
10.1337 1.90631 -18.7791 
5.84479 1.6483 -16.3448 
0.167108 0.05258 -0.52752 
1.71798e+29 8.42311e+28 -8.37842e+29 
1.13778e+14 6.30515e+13 -6.35032e+14 
1.84877e+18 1.07847e+18 -1.08488e+19 
-9.59355e+29 1.41028e+30 -1.37833e+31 
14.0198 2.2406 -22.5486 
10.9063 1.95877 -19.6137 
8.83017 1.79644 -17.9602 
6.72737 1.45613 -14.3682 
0.810681 0.358233 -3.60332 
6.57682e+37 3.02047e+37 -3.04142e+38 
4.58412e+11 2.40121e+11 -2.42357e+12 
1.80135e+27 5.14297e+27 -5.16509e+28 
-2.57077e+30 8.87974e+31 -8.8841e+32 
-2.08288e+33 5.6069e+33 -5.72658e+34 
-3.32264e+33 5.78409e+33 -5.80988e+34 
5.82127 1.35526 -13.9151 
9.4484 2.24521 -23.0534 
6.85358 1.65691 -17.0202 
3.33755 1.02052 -10.4363 
4.91329e+25 1.93022e+25 -1.96434e+26 
-4.08351e+32 1.42223e+33 -1.44198e+34 
11.5702 1.99677 -20.2568 
6.49564 1.39063 -14.2358 
5.90016 1.33659 -13.9151 
4.1858 1.19198 -12.4563 
5.89124e+29 1.35139e+30 -1.37833e+31 
2.32809e+30 5.26173e+30 -5.47463e+31 
nan nan nan 
-1.35109e+17 1.04761e+18 -1.07831e+19 
-4.91895e-12 1.0078e-11 -1.05857e-10 
-187.915 209.745 -2111.89 
11.5363 1.46583 -15.4458 
5.7687 1.32275 -13.9781 
4.0919 1.17749 -12.4563 
0.128346 0.0443054 -0.465163 
28094.2 12851.7 -135130 
5.73032 3.01207 -31.9698 
1.90333e+25 1.2255e+27 -1.28258e+28 
11.3153 2.58224 -27.7055 
3.40207e-25 1.27437e-25 -1.35684e-24 
1.74258e+29 7.96221e+28 -8.4945e+29 
0.0239152 0.0115506 -0.12234 
3.66955e+28 1.92977e+28 -2.08025e+29 
3.24793e-13 6.03234e-13 -6.46328e-12 
2.36932e+30 5.20988e+30 -5.47463e+31 
5.20619e+29 1.27724e+30 -1.34972e+31 
-4.96665e-12 1.00593e-11 -1.05857e-10 
-1.47289e+11 2.29723e+11 -2.42281e+12 
11.6095 1.42029 -15.4845 
11.6245 1.42706 -15.5625 
4.07969 1.11244 -12.4563 
2.50617 0.877878 -9.49298 
4.06565e+14 2.32719e+14 -2.55494e+15 
5.0023e-18 3.67777e-17 -3.96318e-16 
-2.96946e+22 2.79647e+23 -3.00969e+24 
-8.98031e-09 1.05323e-08 -1.11033e-07 
4.18271 1.11145 -12.4563 
7.76361e-26 3.04052e-26 -3.3492e-25 
2.42248e+17 3.99059e+18 -4.36633e+19 
-1.11288e-17 5.98478e-13 -6.55361e-12 
165.408 34.422 -386.145 
5.67222 1.22812 -13.7909 
11.8007 2.61654 -29.4206 
11.2358 2.50854 -28.2115 
4.03997 1.10142 -12.4563 
0.137246 0.0538963 -0.60352 
9.10784e+27 4.57327e+27 -5.16536e+28 
4.39194e+26 1.15978e+27 -1.29127e+28 
nan nan nan 
10.0529 1.12883 -12.7915 
11.536 1.37322 -15.5625 
5.79677 1.21467 -13.8527 
11.8838 2.5761 -29.4206 
8.06002 1.79054 -20.458 
0.117903 0.0421585 -0.479586 
2.09567e-23 7.76912e-24 -8.83405e-23 
64.0487 35.6301 -409.426 
5.56108e+26 1.12587e+27 -1.28258e+28 
4.71888e+23 1.06506e+24 -1.21172e+25 
-5.00058e+27 7.40992e+28 -8.37774e+29 
-1.0189e+33 1.28528e+33 -1.44198e+34 
11.1869 1.71822 -19.739 
10.464 1.6569 -19.1279 
8.98808 1.59658 -18.279 
264.684 53.352 -617.832 
6.02763 1.46045 -16.7889 
5.16023 1.31444 -14.9959 
1.218 0.359169 -4.24335 
2.41225e+35 8.06251e+34 -9.43302e+35 
2.13768e+18 3.76854e+18 -4.36633e+19 
-1.36985e+21 4.02767e+21 -4.61352e+22 
-1.14083e-35 6.7253e-36 -7.36376e-35 
13.8553 1.78755 -22.5486 
11.8584 2.47162 -29.143 
5.47908 1.18687 -14.0098 
9.90608e+21 3.92078e+21 -4.61306e+22 
4.07859e+11 2.0668e+11 -2.45167e+12 
3.93441e+16 5.68465e+16 -6.69841e+17 
-1.6744e+23 1.03465e+24 -1.21172e+25 
-2.12267e-12 2.25611e-12 -2.63436e-11 
-2.47546e-25 1.21666e-25 -1.38032e-24 
10.546 1.06561 -13.8217 
11.4891 1.3499 -15.5234 
9.09663 1.54935 -18.3878 
1.49836e+28 3.53176e+27 -4.66165e+28 
1.2376e+17 5.5636e+16 -6.69873e+17 
0.0209011 0.0101564 -0.122328 
4.31368e+17 3.68813e+18 -4.36633e+19 
-2.87698e+33 4.69938e+33 -5.80988e+34 
-0.000417076 0.000616492 -0.0075692 
-3.36433e+33 4.72901e+33 -5.80988e+34 
14.1356 1.79023 -22.6312 
11.3407 1.67361 -19.9946 
11.8867 2.3789 -29.0062 
11.1446 2.30084 -28.0833 
5.39346 1.12975 -13.7909 
5.14469 1.26823 -14.9959 
1.82104e+26 6.50091e+25 -7.90958e+26 
4.12256e-12 2.14748e-12 -2.6346e-11 
2.8024e+07 4.69714e+07 -5.72023e+08 
1.98833e+26 1.081e+27 -1.29127e+28 
-3.63161e+23 1.61662e+25 -1.95146e+26 
10.7067 1.12408 -14.0736 
11.6636 1.32723 -15.6413 
11.1641 1.63346 -19.9301 
1.56473e+06 717281 -8.93785e+06 
0.00495984 0.00245417 -0.030585 
2.45678e+26 1.03066e+27 -1.28258e+28 
-0.000103652 0.000148508 -0.00188289 
-2.43357e-25 1.13524e-25 -1.35671e-24 
11.7206 1.16957 -15.5234 
11.253 1.61453 -19.9301 
11.886 2.29701 -29.0062 
0.196453 0.047355 -0.629926 
1.73012 0.417078 -5.5963 
6.13793e+28 1.57799e+28 -2.02506e+29 
3.55974e+17 8.95521e+17 -1.12624e+19 
2.69559e+23 9.70943e+23 -1.21169e+25 
-6.5709e+32 1.11983e+33 -1.45247e+34 
9.83228 0.969141 -12.4563 
14.4 1.79568 -22.5486 
14.2612 1.74612 -22.6312 
11.1968 1.5818 -19.9301 
11.134 1.57402 -19.9301 
5.49631 1.09573 -14.1057 
4.12538 0.907873 -12.4563 
0.168983 0.0405177 -0.531148 
6.01779e+12 3.00166e+12 -3.87771e+13 
9.01318e+30 1.67155e+31 -2.1447e+32 
-1.3534e+34 1.7502e+34 -2.34098e+35 
-4.05149e+27 4.09637e+27 -5.16509e+28 
-0 0 -0 
11.085 1.03855 -14.4691 
12.033 1.11906 -15.8418 
14.3506 1.77398 -22.6312 
9.36568 1.42766 -18.5535 
5.47392 1.06432 -13.9465 
6.45968 1.33553 -17.4529 
3.05114e-32 1.00352e-28 -1.29731e-27 
-4.29282e+20 3.53528e+21 -4.61306e+22 
-7.15108e+32 1.06652e+33 -1.44198e+34 
-2.03886e-20 2.73295e-20 -3.69866e-19 
-0.154626 0.152246 -2.01909 
11.4588 1.16482 -15.4458 
12.2012 1.6229 -21.3045 
11.3715 1.5477 -20.1906 
11.3016 2.06824 -27.5818 
11.2009 2.08473 -27.8303 
4.23766 0.918146 -12.4563 
7.01203e+28 1.63606e+28 -2.18402e+29 
11.5392 1.53008 -20.3905 
10.4377 1.44419 -19.3678 
10.3224 1.43957 -19.3072 
4.084 0.821043 -12.4563 
9.07091e-17 2.81185e-17 -3.85575e-16 
4.58029e-30 1.45426e-30 -1.99388e-29 
5.55705e+26 2.36478e+26 -3.22818e+27 
7.9926e+06 1.05447e+07 -1.43006e+08 
-1.55218e-05 3.59873e-05 -0.000468356 
11.3764 1.10913 -15.3689 
14.5093 1.62098 -22.5486 
11.2244 1.4823 -20.1906 
9.47532 1.35704 -18.6656 
11.2109 2.01324 -27.9562 
6.97197 1.29364 -17.9602 
7.66042e+28 1.80174e+28 -2.52759e+29 
nan nan nan 
-0.00624457 0.00851414 -0.12234 
-8.96694e+32 1.01174e+33 -1.44198e+34 
11.9056 1.03456 -15.5625 
14.3368 1.60263 -22.6312 
13.7644 1.56273 -22.5486 
11.2802 1.45058 -20.1906 
10.7943 1.41404 -19.866 
4.27642 0.909456 -12.4563 
0.436729 0.0996961 -1.40416 
2.17108 0.580113 -8.2279 
1.6485e+06 618452 -8.78911e+06 
1.5781e-25 3.87113e-25 -5.45071e-24 
12.3004 1.07601 -16.2161 
14.4673 1.54509 -22.3852 
13.8786 1.54111 -22.6312 
11.9378 1.42225 -20.8727 
10.8588 1.3882 -19.739 
11.4131 1.93346 -27.9562 
10.8079 1.89208 -27.3377 
0.364557 0.0977493 -1.42004 
5.76237e+25 1.807e+25 -2.61964e+26 
1.46673e+26 5.61257e+25 -8.12554e+26 
1.32681e-29 5.55129e-30 -8.03821e-29 
2.48598e+13 1.07704e+13 -1.56002e+14 
1.08547e+24 3.4512e+24 -4.94349e+25 
11.1197 1.02564 -15.1059 
14.4557 1.50144 -22.2242 
13.7322 1.50427 -22.5486 
13.3252 1.43953 -22.5486 
13.021 1.46507 -22.3044 
5.38872 0.931278 -13.7296 
4.4719 0.849045 -12.4563 
0.321504 0.0796139 -1.1578 
0.000112806 2.81134e-05 -0.000413871 
0.158422 0.0440206 -0.650272 
8.77531e-20 2.52424e-20 -3.73189e-19 
1.84299e-26 6.12902e-27 -9.05933e-26 
3.359e+11 1.64443e+11 -2.42373e+12 
4.27921e+22 5.08532e+22 -7.47584e+23 
5.32244e+22 2.0345e+23 -2.97123e+24 
-37704 584808 -8.79117e+06 
-6.21941e-10 4.80516e-10 -6.71139e-09 
14.0432 1.49827 -22.5486 
13.934 1.49321 -22.5486 
13.8812 1.4842 -22.6312 
13.2669 1.41671 -22.5486 
9.83246 1.1782 -19.3072 
6.85812 1.18087 -17.8049 
4.15526 0.764009 -12.4563 
1.06327 0.246977 -3.67757 
1.54526e+29 5.52975e+28 -8.37774e+29 
5.48212e+26 2.11224e+26 -3.185e+27 
4.92313e-23 2.40778e-23 -3.62806e-22 
10.5589 1.23812 -19.5516 
9.92736 1.17082 -19.3072 
0.280611 0.05973 -0.906443 
0.155242 0.0379541 -0.58526 
1.41093e-18 3.89282e-19 -5.99743e-18 
5.14166e+23 1.88861e+23 -2.91534e+24 
7.32982e+18 2.83208e+18 -4.36633e+19 
3.61439e-24 1.42093e-24 -2.18992e-23 
3.49669e+14 1.64058e+14 -2.52514e+15 
1.43013e+17 1.75687e+17 -2.6968e+18 
1.92127e+07 3.73981e+07 -5.72021e+08 
4590.36 35579.2 -543559 
-6.73337e-37 3.13336e-37 -4.60228e-36 
12.6288 1.02146 -16.4755 
11.2847 0.962079 -15.3689 
14.4043 1.41982 -22.3852 
13.9409 1.42802 -22.6312 
13.6719 1.41624 -22.5486 
12.1292 1.31076 -21.1586 
6.11769 0.931592 -14.6753 
1.84012 0.414361 -6.03351 
1.92882 0.438978 -6.84852 
0.00766703 0.00195653 -0.0307402 
0.21177 0.0553055 -0.868711 
3.21498e-07 1.13458e-07 -1.79373e-06 
9.34671e+10 3.82375e+10 -6.02466e+11 
278479 138948 -2.18602e+06 
nan nan nan 
10.5598 0.825011 -13.3153 
11.7433 0.969314 -15.8013 
14.52 1.37549 -22.2242 
14.1 1.42243 -22.6312 
14.0024 1.41557 -22.6312 
13.2437 1.36514 -22.5486 
10.8844 1.69696 -27.3377 
4.4696 0.775073 -12.4563 
0.217789 0.0515839 -0.830884 
5.86676e-21 1.43829e-21 -2.31174e-20 
1.45067e+20 4.40548e+19 -7.07319e+20 
390.773 129.298 -2078.59 
2.98538e-07 1.11364e-07 -1.79322e-06 
1.39622e+21 7.12066e+20 -1.14599e+22 
4.9481e+18 2.70897e+18 -4.36633e+19 
12.5765 0.983291 -16.4317 
6.10289 0.887944 -14.6406 
0.130334 0.0254225 -0.40992 
0.143335 0.0313484 -0.511395 
nan nan nan 
5.41681e+08 1.38969e+08 -2.2875e+09 
9.91091e+13 3.87622e+13 -6.38735e+14 
1.96975e+10 9.10264e+09 -1.49693e+11 
2.19877e+22 1.13464e+22 -1.86896e+23 
28788.7 33156.2 -543753 
-0.283132 1.87321 -31.641 
-2.54264e-05 0.000113678 -0.00193122 
10.5461 0.81528 -13.6387 
11.7896 0.93636 -15.8013 
10.7935 0.933479 -15.4073 
10.5827 0.928338 -15.3689 
13.9134 1.35039 -22.6312 
13.0817 1.2952 -22.4666 
2.27846 0.493378 -7.42586 
9.17328e-20 2.19912e-20 -3.69872e-19 
2.25236e+21 6.81073e+20 -1.14593e+22 
0.00128147 0.00044823 -0.00756918 
2.75964e+25 4.72242e+25 -7.90917e+26 
10.5558 0.769265 -13.3153 
10.4399 0.771482 -13.2867 
12.2819 0.942046 -16.2587 
11.7395 0.916568 -15.8013 
11.1728 0.878459 -15.1801 
11.3041 0.897592 -15.4845 
14.5218 1.27991 -22.2242 
14.4681 1.29291 -22.3852 
10.1909 1.075 -19.5516 
9.99729 1.09834 -19.4287 
9.90987 1.08213 -19.4287 
6.06958 0.850426 -14.7103 
5.40576 0.824932 -14.3017 
1.20597 0.311476 -5.37663 
inf inf -inf 
5.52907e+17 1.56624e+17 -2.69578e+18 
6027.18 1945.13 -33613.5 
9.85169e+13 3.67642e+13 -6.34988e+14 
2.84422e-12 1.48902e-12 -2.57342e-11 
28.0806 30.094 -516.993 
3.20235e-13 1.45954e-12 -2.62164e-11 
12.3772 0.901325 -16.2161 
12.4987 1.18083 -21.8315 
5.64916e+10 1.09188e+10 -1.92181e+11 
nan nan nan 
2.24975 0.482387 -8.52777 
0.338501 0.073864 -1.30429 
0.362894 0.0863089 -1.52368 
8.96198e-17 2.19163e-17 -3.87331e-16 
6.25482e+12 2.21513e+12 -3.92266e+13 
13.4326 7.52872 -133.424 
-3.20137e-27 4.91435e-27 -8.40883e-26 
-6.0952e+24 2.59786e+24 -4.91086e+25 
12.1166 0.893032 -16.1314 
14.2888 1.18575 -21.6783 
12.067 1.22712 -21.2313 
10.3011 1.0216 -19.49 
5.4555 0.779156 -14.1705 
0.168662 0.0339021 -0.604146 
0.267438 0.0540157 -0.970694 
1.0739e+24 2.62599e+24 -4.87866e+25 
5.42701e+22 1.65387e+23 -3.00946e+24 
11.4431 0.831372 -15.5234 
7.11844 0.900887 -16.7889 
6.13446 0.793883 -14.8161 
5.42095 0.748185 -13.9781 
5.37958 0.760911 -14.2358 
4.46961 0.663892 -12.4563 
0.130196 0.0263837 -0.490825 
3.39402e-13 8.76692e-14 -1.63088e-12 
-1.37989e+08 4.87513e+08 -9.92193e+09 
-8.68403e+24 2.77253e+24 -4.87866e+25 
11.2993 0.806287 -15.4458 
10.53 0.807355 -15.6413 
6.93305 0.862601 -16.5196 
0.664083 0.113522 -2.12167 
7.42799e+24 1.77444e+24 -3.37825e+25 
3.60181e+14 1.32162e+14 -2.52514e+15 
nan nan nan 
-2.49247e+31 1.68773e+32 -3.57922e+33 
-3.55931e+26 1.72091e+26 -3.185e+27 
12.3274 0.830459 -16.3016 
12.0316 0.822783 -16.0894 
11.4776 0.79349 -15.5625 
14.3508 1.09183 -21.6783 
12.7749 1.06467 -22.3852 
5.49497 0.730829 -14.4353 
4.52032 0.712783 -13.7909 
9.07229e-20 1.85637e-20 -3.63432e-19 
0.135729 0.0282627 -0.553127 
2.52371e-11 5.53142e-12 -1.08431e-10 
2.0653e+15 5.23936e+14 -1.02814e+16 
3.99997e+28 1.05857e+28 -2.08003e+29 
1.34566e+27 6.52719e+26 -1.28258e+28 
54641.1 27620.7 -543513 
2.51845e-23 2.78881e-22 -5.70328e-21 
-9.55203e+33 1.26649e+34 -2.34098e+35 
-5.03911e-24 4.83535e-24 -8.95054e-23 
10.5576 0.765428 -15.681 
7.06601 0.822095 -16.6084 
7.03204 0.82592 -16.6982 
6.65764 0.797882 -16.1314 
4.42163 0.612316 -12.4563 
nan nan nan 
1.38501 0.261592 -5.2793 
0.360006 0.069614 -1.40228 
0.283493 0.0584561 -1.17581 
0.35425 0.0796068 -1.6012 
8.22904e+06 7.22208e+06 -1.44608e+08 
1.67898e+18 7.96355e+18 -1.77938e+20 
-11.399 6.00119 -128.547 
12.321 0.782736 -16.2587 
11.4608 0.749746 -15.5625 
10.7249 0.733057 -15.4845 
10.84 0.838974 -20.1248 
10.2472 0.869316 -19.5516 
12.6463 1.31316 -27.4592 
4.69194 0.682089 -14.1057 
0.108444 0.0231978 -0.48024 
1.8626e+36 4.15914e+35 -8.5896e+36 
5.64893e+23 1.46538e+23 -3.04916e+24 
-3.21006e-21 1.67929e-20 -3.5873e-19 
-4.65091e-09 5.93546e-09 -1.11022e-07 
-5.87032e+24 2.42998e+24 -4.87866e+25 
12.4011 0.758683 -16.1736 
11.9594 0.752086 -16.0894 
10.3139 0.711085 -15.4458 
14.3081 1.00384 -21.7546 
13.503 1.00254 -22.6312 
12.7007 0.963892 -22.3852 
6.74596 0.76262 -16.3448 
5.64791 0.683738 -14.6753 
5.62545 0.68663 -14.7807 
5.57058 0.684748 -14.7454 
4.46053 0.579043 -12.4563 
4.37435 0.638626 -13.4311 
1.37957 0.245792 -5.2583 
1.297e+28 2.42264e+27 -5.16495e+28 
7.32111e+26 1.4849e+26 -3.16383e+27 
5.89107e-29 1.50878e-29 -3.22981e-28 
2.15853e+06 1.6715e+06 -3.53596e+07 
4.85879e+16 1.21621e+17 -2.74586e+18 
-3.13101e+33 2.85606e+33 -5.85244e+34 
-2.9064e-20 1.87901e-20 -3.79976e-19 
10.7973 0.694209 -15.4845 
10.6997 0.694006 -15.5234 
10.3841 0.848263 -19.6137 
10.0291 0.986784 -21.9089 
6.98117 0.747792 -16.5196 
6.66842 0.726192 -16.0476 
1.61593e+28 2.43434e+27 -5.34569e+28 
0.682641 0.112775 -2.46159 
0.360788 0.0688672 -1.51485 
1.83847e-05 4.67911e-06 -0.000103193 
7.09952e+13 2.87424e+13 -6.34436e+14 
-1.36993e+33 2.31785e+33 -5.80988e+34 
-1.15377e+34 1.10984e+34 -2.34098e+35 
-2.00722e-13 7.66637e-14 -1.63089e-12 
12.1777 0.709678 -16.2587 
10.8615 0.67648 -15.5234 
13.5999 0.917716 -22.6312 
12.6939 0.873651 -22.3852 
10.3129 0.837628 -19.9946 
10.019 0.949607 -21.7546 
2.70933e+09 4.42726e+08 -1.01064e+10 
14.4041 2.38094 -54.3011 
9.70072e-17 1.7199e-17 -3.90876e-16 
2.96873e+27 5.62104e+26 -1.28261e+28 
1.33764 0.258627 -5.8926 
0.369682 0.0736261 -1.6718 
3.40561e+16 7.452e+15 -1.69517e+17 
3.33327e+16 7.44918e+15 -1.69517e+17 
-1.23144e+11 3.9887e+11 -9.32038e+12 
11.1903 0.647918 -15.4073 
10.7059 0.647767 -15.5625 
10.6884 0.650703 -15.6413 
10.706 0.660054 -15.8013 
14.4619 0.933729 -22.2242 
12.5079 0.734536 -22.3852 
11.599 0.839499 -21.1586 
10.6516 0.807365 -19.8023 
10.3441 0.800629 -19.6762 
6.9625 0.697359 -16.4755 
5.73448 0.631082 -14.9596 
4.59945 0.51462 -12.4563 
2.52736e-08 4.56275e-09 -1.07374e-07 
1.37827e+37 2.71198e+36 -6.36523e+37 
6.87662e-14 1.73076e-14 -4.05829e-13 
1.7822e+18 4.68187e+17 -1.09834e+19 
9.84301e+13 2.69407e+13 -6.35003e+14 
nan nan nan 
3.53135e+13 2.70041e+13 -6.34988e+14 
-9.70547e-16 1.1396e-15 -2.51279e-14 
11.6004 0.643968 -15.761 
11.0031 0.623839 -15.4845 
10.7156 0.642147 -15.8826 
13.5827 0.918092 -22.6312 
2.11514e+35 2.72175e+34 -6.57908e+35 
83.2908 11.5289 -280.598 
1.33147 0.189309 -4.59696 
1.24767e-21 2.96221e-22 -7.18016e-21 
-1.80133e+22 1.19862e+23 -3.00969e+24 
-3.3956e-16 2.8393e-16 -6.25435e-15 
-1.4579e+24 5.16538e+23 -1.21169e+25 
12.2705 0.652007 -16.4755 
11.0421 0.606239 -15.4073 
10.8227 0.604777 -15.5625 
10.6317 0.621752 -15.9235 
13.4603 0.852957 -22.6312 
12.8833 0.838797 -22.4666 
12.5564 0.71929 -22.4666 
5.67287 0.573594 -14.4691 
5.69187 0.58782 -14.9596 
4.58854 0.486573 -12.4563 
16.9116 2.18926 -55.1635 
3.60851e-22 5.61299e-23 -1.41318e-21 
6.74391e-12 1.06174e-12 -2.67169e-11 
1.88528e+09 3.67953e+08 -9.25491e+09 
5.56096e+09 1.47591e+09 -3.72282e+10 
8.83777e-14 6.5073e-14 -1.63089e-12 
200130 339766 -8.79173e+06 
nan nan nan 
-4.26066e+31 1.36925e+32 -3.57912e+33 
-2.65029e+33 2.6286e+33 -5.80988e+34 
11.8501 0.609958 -16.006 
10.9609 0.581416 -15.4845 
12.7141 0.848033 -22.3852 
10.6363 0.768028 -20.1248 
10.0589 0.884483 -19.6762 
6.70753 0.605055 -15.9235 
4.44979 0.474798 -12.4563 
4.8383e+14 9.77267e+13 -2.55488e+15 
1.67136e+12 3.65241e+11 -9.53042e+12 
9.4007e+12 6.20573e+12 -1.6159e+14 
nan nan nan 
-6.17839 5.73829 -128.552 
10.9075 0.558553 -15.5234 
13.5882 0.959317 -22.6312 
13.2402 0.786089 -22.6312 
12.6268 0.828286 -22.3852 
10.7009 0.766971 -20.3905 
5.55962 0.545366 -15.0691 
0.430028 0.051066 -1.38403 
nan nan nan 
0.359431 0.0486991 -1.30374 
2.41639 0.337284 -9.15693 
37.0249 5.5574 -150.091 
9.78908e+35 1.67047e+35 -4.52194e+36 
2.89062e-33 6.99994e-34 -1.9002e-32 
11.9792 0.57374 -16.1736 
11.4311 0.550186 -15.5625 
10.8444 0.554661 -16.006 
10.787 0.558194 -16.0894 
10.6916 0.556569 -16.0476 
12.9031 0.730599 -22.4666 
12.7552 0.800153 -22.3852 
9.48516 0.725192 -20.5944 
5.59227 0.533903 -14.9959 
1.22278 0.150267 -4.24335 
1.39972e-09 2.4359e-10 -6.87234e-09 
0.0243913 0.00433493 -0.12234 
nan nan nan 
1.54085e+14 9.205e+13 -2.58545e+15 
11.1161 0.51984 -15.4073 
11.0374 0.52017 -15.4458 
13.6487 0.856553 -22.6312 
5.74452 0.49721 -14.7103 
5.33485 0.494301 -14.606 
1.26732 0.140735 -4.15209 
3.1025e+13 5.36582e+12 -1.57821e+14 
7.42878e+12 1.33455e+12 -3.92284e+13 
2.72167e+13 5.38318e+12 -1.57821e+14 
1.41512e+15 3.51757e+14 -1.03418e+16 
1.1356e+18 1.59658e+18 -4.36633e+19 
-1.46654e+29 1.52166e+30 -5.47463e+31 
13.1776 0.648177 -22.6312 
12.6168 0.614432 -22.5486 
11.2804 0.703164 -21.0864 
4.41027 0.409573 -12.4563 
inf 7.39648e+37 -inf 
3.23753e+13 5.15849e+12 -1.57821e+14 
5.56106e+09 1.21526e+09 -3.72249e+10 
nan nan nan 
-2.84339e-19 2.12929e-19 -5.9706e-18 
11.877 0.500791 -16.0894 
11.2734 0.478721 -15.4073 
10.8787 0.489932 -16.0894 
13.8271 0.699951 -22.6312 
13.2926 0.694433 -22.6312 
12.7981 0.595863 -22.5486 
6.24059 0.456988 -14.8161 
4.68481 0.384877 -12.4563 
1.30595e+14 1.95234e+13 -6.24009e+14 
6.73184e-23 1.10356e-23 -3.53147e-22 
6.93926e-14 1.26875e-14 -4.05829e-13 
3.98191e+21 1.44778e+21 -4.61306e+22 
33150 17048.2 -543570 
12.7394 0.499639 -16.9734 
10.7431 0.467301 -16.0894 
10.4751 0.727442 -20.3234 
6.53743 0.451304 -15.3689 
4.52923 0.374084 -12.4563 
6.5683e+08 7.28309e+07 -2.43703e+09 
1.26665e+14 1.4188e+13 -4.75018e+14 
0.0786782 0.009995 -0.329096 
3.10145e+13 4.71241e+12 -1.57811e+14 
4.0822e-21 6.85791e-22 -2.29134e-20 
8.66522e+10 1.79679e+10 -6.02439e+11 
5.70306e+14 3.09239e+14 -1.02804e+16 
1.35517e+23 3.69469e+23 -1.21172e+25 
11.6748 0.447526 -15.8418 
10.8561 0.44456 -16.0894 
14.0755 0.608839 -22.0654 
13.8387 0.630495 -22.6312 
13.2262 0.566823 -22.6312 
4.57846 0.357916 -12.4563 
4.43281 0.403759 -12.4563 
16.0491 1.55828 -55.1635 
0.863117 0.0939519 -3.30765 
5.57254e+31 6.36118e+30 -2.22096e+32 
8.087e-14 1.15729e-14 -4.05895e-13 
1.74001e+09 2.63236e+08 -9.25551e+09 
5.6564e+13 1.81555e+13 -6.34988e+14 
10.8847 0.413765 -15.4458 
12.8263 0.513662 -22.5486 
0.357905 0.0377117 -1.39381 
1.32199 0.159326 -5.84947 
0.622531 0.0757623 -2.79068 
6.04146e+06 959070 -3.53596e+07 
1.28582e+18 2.93467e+17 -1.0847e+19 
2.16826e+14 6.95399e+13 -2.55494e+15 
4.65183e+13 1.76172e+13 -6.46361e+14 
607754 240008 -8.79641e+06 
10.812 0.398036 -16.0894 
10.6992 0.397972 -16.0894 
13.0151 0.46723 -22.6312 
12.5734 0.472855 -22.5486 
6.21412 0.373998 -14.8517 
4.59874 0.322967 -12.4563 
4.47089 0.34185 -12.4563 
6.10019e-35 7.61447e-36 -2.95722e-34 
4.89929e-15 6.4533e-16 -2.51311e-14 
7.09399e+12 1.00999e+12 -3.92275e+13 
4.04578e+13 1.64229e+13 -6.35018e+14 
2.6911e+18 4.62384e+18 -1.75735e+20 
1.99676e+25 8.12723e+25 -3.22818e+27 
-2.37024e+14 1.13102e+15 -4.13681e+16 
13.599 0.429382 -18.1182 
10.9948 0.365521 -15.4073 
10.8919 0.372748 -16.006 
13.3507 0.531245 -22.5486 
13.1675 0.457468 -22.5486 
12.8582 0.464287 -22.5486 
5.87124 0.348471 -14.6406 
0.130922 0.0100386 -0.413874 
2.11836e+29 2.04485e+28 -8.43595e+29 
6.46781e-26 7.78344e-27 -3.20084e-25 
1.54697e-20 2.32759e-21 -9.63103e-20 
75503 13031 -540644 
1.26625e+09 2.22675e+08 -9.25349e+09 
7.13753e-22 1.38121e-22 -5.69393e-21 
3.93744e+25 1.69634e+25 -6.94106e+26 
13.9153 0.484008 -22.2242 
13.7842 0.495906 -22.6312 
13.4371 0.50558 -22.5486 
11.4471 0.488617 -21.3045 
6.1077 0.329456 -14.7454 
4.92855 0.295881 -13.1734 
2.71105e-15 2.0796e-16 -9.18334e-15 
0.856317 0.0747865 -3.28336 
3.26471e-07 4.10678e-08 -1.79442e-06 
2.61973e+10 3.41064e+09 -1.49756e+11 
317394 49601.9 -2.18602e+06 
2.91998e+14 5.84726e+13 -2.55494e+15 
645664 201682 -8.7921e+06 
nan nan nan 
-3.77982e-36 1.76324e-36 -7.36468e-35 
10.8853 0.325888 -15.9646 
6.2438 0.31208 -14.9235 
6.84602e+14 5.4891e+13 -2.55488e+15 
0.504981 0.0455391 -2.1017 
1.41708e-09 1.47933e-10 -6.87235e-09 
5.93877e-09 6.49327e-10 -3.02455e-08 
1.01129e+14 1.36521e+13 -6.34988e+14 
1216.61 173.887 -8141.97 
271.219 45.2032 -2111.89 
4.64441e+12 8.46335e+11 -3.92266e+13 
2.68053e+18 3.88686e+18 -1.75735e+20 
10.8281 0.305272 -16.0476 
13.5708 0.434364 -22.5486 
12.9932 0.37882 -22.5486 
12.6313 0.457195 -22.5486 
6.30051 0.291425 -14.9596 
2.96376e+13 3.17018e+12 -1.57789e+14 
2.6482e+13 3.13831e+12 -1.57821e+14 
3.13272e+14 5.14512e+13 -2.55494e+15 
-3.66116e-05 4.07129e-05 -0.00196147 
11.7628 0.29479 -15.9235 
6.22868 0.269073 -14.8875 
4.84613 0.257263 -13.1734 
0.357549 0.0260031 -1.39359 
1.32092 0.109098 -5.84756 
5.28246e-12 4.90489e-13 -2.63397e-11 
nan nan nan 
13.3726 0.286386 -17.552 
13.413 0.367715 -22.5486 
12.8382 0.304543 -22.5486 
0.205412 0.0157641 -0.921327 
6.30365e+21 4.93323e+20 -2.88165e+22 
1.99677e+12 1.6842e+11 -9.75014e+12 
7.3043e+12 6.80793e+11 -3.92265e+13 
5.71597e+17 1.89617e+17 -1.08491e+19 
nan nan nan 
10.6938 0.24022 -16.0894 
13.8299 0.332906 -22.5486 
13.0696 0.325675 -22.4666 
11.1488 0.380282 -21.3045 
4.65781 0.227854 -13.0344 
3.50974e-16 2.94294e-17 -1.84165e-15 
4.37757e+11 3.88386e+10 -2.42357e+12 
6.14432e+09 5.62664e+08 -3.54317e+10 
8.1992e-05 8.79933e-06 -0.000554014 
1.37691e+15 1.64073e+14 -1.02804e+16 
1.90123e+13 2.47734e+12 -1.60631e+14 
2.70342e+14 3.9693e+13 -2.55494e+15 
nan nan nan 
nan nan nan 
10.7003 0.217843 -16.3448 
11.7078 0.324144 -21.5272 
6.24925 0.20564 -14.8875 
1.05633e+36 5.14047e+34 -3.46685e+36 
2.2469e+32 1.28822e+31 -8.82132e+32 
1.27677e+06 127444 -8.79172e+06 
1.08855 0.115791 -7.95113 
9.00426e-10 1.00454e-10 -6.86835e-09 
1.03227e-29 1.16462e-30 -8.04107e-29 
5.44241e+24 6.81293e+23 -4.87865e+25 
nan nan nan 
nan nan nan 
nan nan nan 
11.0577 0.20426 -17.2579 
5.53151 0.179157 -14.2686 
33.1942 1.5761 -111.247 
0.619273 0.0358863 -2.77749 
inf 4.03988e+37 -inf 
4.16214e+14 3.2081e+13 -2.43979e+15 
2.26814e+25 2.41583e+24 -1.96434e+26 
5.6447e+10 7.61324e+09 -5.92314e+11 
79234.1 29150.4 -2.18602e+06 
11.2243 0.181354 -17.4037 
6.28279 0.165179 -15.0691 
4.18151 0.151076 -12.4563 
1.71785e+12 1.1473e+11 -9.75014e+12 
2.64667e+13 1.82579e+12 -1.57821e+14 
1.06258e-12 7.49925e-14 -6.55577e-12 
4.02948e+17 3.0523e+16 -2.69578e+18 
1.38001e+15 1.13281e+14 -9.87036e+15 
3.48747e-30 3.19655e-31 -2.71977e-29 
1.86948e+13 1.8455e+12 -1.57821e+14 
nan nan nan 
13.3443 0.208316 -22.3852 
11.4844 0.230443 -21.3045 
11.3967 0.22905 -21.3783 
6.29457 0.14299 -14.9959 
4.87101 0.141736 -13.3153 
7.10257 0.267444 -23.7402 
0.164448 0.00751128 -0.742394 
1.77171e+27 8.2236e+25 -8.09916e+27 
7.90547e+15 4.22962e+14 -4.0879e+16 
6.35041e+09 3.83184e+08 -3.72282e+10 
2.59502e+14 2.62318e+13 -2.55494e+15 
3.59952e+15 4.22253e+14 -4.0879e+16 
nan nan nan 
5.63141e+08 9.76512e+07 -9.2547e+09 
1.94634e+15 4.38095e+14 -4.11216e+16 
-3.13289e+33 6.81952e+32 -5.80988e+34 
10.9526 0.122849 -16.0894 
13.445 0.171048 -22.3852 
12.7667 0.132501 -22.4666 
11.2711 0.194201 -21.3783 
5.80566 0.11901 -14.6406 
4.86642 0.124809 -13.402 
5.55206e+34 2.06449e+33 -2.34098e+35 
9.89974e+21 4.06733e+20 -4.61306e+22 
0.00037759 1.62492e-05 -0.00185492 
298126 20150.8 -2.24691e+06 
3.11901e+14 2.27556e+13 -2.55494e+15 
2.02655e+19 1.55726e+18 -1.75735e+20 
2.70169e+14 2.28018e+13 -2.55494e+15 
6.97683e+19 6.26122e+18 -7.07318e+20 
nan nan nan 
3.50307e+15 3.67078e+14 -4.13662e+16 
5.19555e+13 5.60573e+12 -6.34988e+14 
170301 19799.6 -2.18602e+06 
11.2585 0.107018 -17.3062 
4.22527 0.0865595 -12.4563 
3.0035e-34 8.80526e-36 -1.18763e-33 
8.39324e-05 3.53149e-06 -0.000468283 
1.52476e+13 1.16601e+12 -1.57821e+14 
2.24831e+14 1.88656e+13 -2.55494e+15 
1.01308e+22 1.28834e+21 -1.66546e+23 
12.6124 0.248813 -22.6312 
6.28509 0.0787491 -14.9235 
6.34891 0.0811889 -15.3308 
5.46394 0.0777914 -14.3017 
5.04203 0.0844807 -13.7602 
1.36391e+31 3.27401e+29 -5.47463e+31 
2.50875 0.0663013 -11.0397 
0.177175 0.00473752 -0.794612 
1.08534e+32 2.9259e+30 -4.93232e+32 
72208.9 3376.61 -543559 
nan nan nan 
nan nan nan 
11.6796 0.0756866 -16.6084 
13.3632 0.074423 -22.1445 
12.867 0.0886519 -22.3044 
12.6767 0.0316461 -22.3852 
11.2375 0.0841604 -21.3783 
4.89377 0.0619011 -13.5787 
82.5424 0.814177 -279.061 
0.165204 0.00276408 -0.644218 
0.500371 0.00954878 -2.08154 
1.07362e+38 2.27255e+36 -inf 
2.38257e-34 4.8616e-36 -1.18763e-33 
4.17982e+14 1.18837e+13 -2.55488e+15 
2.47005e+13 7.33044e+11 -1.57822e+14 
4.48965e+20 1.35991e+19 -2.92025e+21 
331.899 10.1446 -2218.97 
9.04963e+13 2.862e+12 -6.34988e+14 
1.02993e+12 4.40475e+10 -9.75058e+12 
2.59104e+14 1.11784e+13 -2.55494e+15 
4.02354e+15 1.79742e+14 -4.13671e+16 
nan nan nan 
6.11765e+14 5.11856e+13 -1.02804e+16 
11.37 0.0344085 -17.552 
13.1905 0.0428691 -22.0654 
12.6326 -0.050814 -22.5486 
11.2917 0.0505004 -21.3783 
6.44883 0.0396641 -15.681 
6.08853 0.0381018 -15.0691 
1.30243 0.0117158 -4.97205 
2.89019e-31 4.07299e-33 -1.241e-30 
2.4296 0.0345545 -10.6911 
7.68355e-20 1.20569e-21 -3.69904e-19 
8.25726e+13 2.16595e+12 -6.34989e+14 
2.94376e+06 134490 -3.59506e+07 
6.55962e+14 3.65378e+13 -1.02804e+16 
4.87924e+14 3.69075e+13 -1.02804e+16 
12.7752 0.0178879 -21.6025 
11.4482 0.0165373 -21.4525 
12.6892 -0.00147765 -42.3441 
0.208251 0.00154797 -0.859756 
2.97531e-31 2.33776e-33 -1.2617e-30 
7.0346e+37 5.81833e+35 -3.23617e+38 
1.9583e+18 1.81848e+16 -1.08496e+19 
7.13739e-05 8.69355e-07 -0.000468584 
5.94826e-05 9.66589e-07 -0.000468429 
7.69152e+13 1.33689e+12 -6.31286e+14 
7.02953e+13 1.32437e+12 -6.38735e+14 
1.93545e+25 4.21898e+23 -1.96409e+26 
9.21105e+14 2.12405e+13 -1.0278e+16 
2.06746e+16 1.54669e+15 -6.73945e+17 
11.55 -0.0144405 -17.7538 
12.7614 -0.0422061 -22.3044 
12.6644 -0.0456314 -22.4666 
11.1575 -0.0131366 -21.3045 
6.5646 -0.00507145 -15.6413 
6.69693 -0.00468857 -16.1736 
5.79532 -0.00356442 -14.7807 
5.10038 -0.0022705 -13.9151 
nan nan nan 
0.0212283 5.59049e-05 -0.12234 
1.21732e+09 5.9581e+06 -9.2549e+09 
nan nan nan 
12.7912 -0.0704715 -22.2242 
7.34454 -0.02869 -16.006 
6.46964 -0.0279589 -16.7434 
5.25016 -0.0235474 -13.7909 
0.177125 -0.00100446 -0.560442 
4.94818e+25 -2.92969e+23 -1.96434e+26 
2.75679e-19 -1.78263e-21 -1.48603e-18 
0.00122608 -7.3034e-06 -0.00756831 
8.32058e+07 -507304 -5.72047e+08 
1.20477e+15 -9.07477e+12 -1.02804e+16 
9.33228e+16 -1.32097e+15 -2.69578e+18 
3.3994e+23 -5.05125e+21 -1.21172e+25 
nan nan nan 
11.3102 -0.0514887 -16.0894 
12.7737 -0.0384412 -22.2242 
12.7114 -0.0464611 -22.3852 
11.1524 -0.0739987 -21.3045 
10.9178 -0.0742441 -21.0864 
8.58481 -0.0579667 -16.8806 
16.7893 -0.123792 -39.6046 
7.00905 -0.0532842 -17.3548 
5.01612 -0.0432108 -13.7909 
0.52978 -0.0110589 -1.91212 
7.9989e-17 -8.8523e-19 -3.87461e-16 
104681 -1395.75 -543456 
5.29421e+06 -82832.6 -3.53596e+07 
3.86406e-06 -6.23571e-08 -2.89831e-05 
191.103 -6.81529 -1836.21 
nan nan nan 
12.0094 -0.101682 -19.9946 
11.98 -0.113237 -21.8315 
11.6363 -0.088805 -21.5272 
1.06574 -0.0153797 -3.35778 
2.04955e+16 -6.16397e+14 -1.66462e+17 
4.33935e+15 -1.54345e+14 -4.13662e+16 
nan nan nan 
-1.49069e+27 -3.87728e+25 -1.28254e+28 
-2.9938e-15 -7.3968e-17 -2.51311e-14 
11.5084 -0.10642 -16.7434 
7.23203 -0.104229 -17.6523 
5.67388 -0.088882 -14.9596 
6.27625 -0.101885 -17.552 
6.98494e+26 -1.29007e+25 -2.17193e+27 
8.21862e+35 -1.55235e+34 -2.71535e+36 
0.793164 -0.0205134 -2.99305 
1.50684 -0.0420833 -7.95018 
3.93189e+16 -3.22185e+15 -6.69872e+17 
11.4444 -0.119822 -16.4755 
12.7544 -0.143162 -22.3044 
12.6852 -0.13677 -22.4666 
11.3477 -0.159185 -21.4525 
11.0518 -0.162413 -21.2313 
6.48159 -0.122946 -16.8347 
4.4088 -0.0901877 -12.4563 
0.417904 -0.0067211 -1.44624 
0.191295 -0.00399643 -0.689654 
1.37817e+34 -4.00003e+32 -5.80988e+34 
1.40735e+12 -6.06541e+10 -9.75124e+12 
10.8939 -0.167333 -18.0126 
0.788986 -0.0219184 -2.50743 
nan nan nan 
0.654247 -0.0211884 -2.51891 
1.9845e+26 -6.65303e+24 -7.90958e+26 
1.23209e-09 -5.09158e-11 -6.41111e-09 
2.88356e+16 -1.30829e+15 -1.66462e+17 
8.54551e+13 -4.87771e+12 -6.35003e+14 
12.5913 -0.159322 -22.4666 
7.16586 -0.179028 -17.552 
5.76081 -0.147482 -14.4691 
6.05557 -0.161275 -15.9646 
6.34879 -0.177064 -17.6523 
5.99092 -0.169015 -16.9269 
1.93559e+20 -7.51665e+18 -7.25451e+20 
2.38525e+35 -9.31339e+33 -9.36364e+35 
1.71549e-23 -7.77723e-25 -8.79633e-23 
1.59952e+15 -9.31963e+13 -1.02804e+16 
9.08262e-13 -5.36288e-14 -5.94182e-12 
3.54818e+14 -2.31624e+13 -2.55494e+15 
3.72111e-06 -2.66805e-07 -2.89815e-05 
2.89637e+14 -2.32757e+13 -2.55494e+15 
nan nan nan 
nan nan nan 
nan nan nan 
12.3584 -0.240752 -21.2313 
12.5427 -0.311603 -22.1445 
11.2467 -0.251477 -21.3783 
5.55107 -0.169341 -14.7454 
nan nan nan 
3.3491e-15 -1.27185e-16 -1.14104e-14 
7.95951e+26 -3.59541e+25 -3.16383e+27 
0.0918001 -0.00428879 -0.383294 
0.0943067 -0.00498051 -0.491862 
1.25861e-09 -7.29963e-11 -6.87234e-09 
2.48051e+07 -1.50232e+06 -1.42218e+08 
1.42712e+12 -1.05609e+11 -9.98023e+12 
1.25714e+09 -9.80951e+07 -9.25511e+09 
1.3151e-11 -1.12455e-12 -1.05857e-10 
5.4918 -0.181303 -13.9465 
5.46771 -0.180648 -14.0416 
6.04401 -0.219731 -17.0672 
20.4784 -0.875 -67.8876 
7.9874e-07 -7.77832e-08 -6.65429e-06 
6.92047 -0.248785 -17.2579 
0.833127 -0.0417721 -2.98599 
0.12041 -0.0069926 -0.493999 
72.7912 -6.26668 -463.374 
nan nan nan 
-2.33913e+30 -1.17383e+31 -8.8841e+32 
11.3296 -0.261646 -16.3016 
12.543 -0.257456 -22.2242 
7.36665 -0.28317 -17.8564 
6.68253 -0.281772 -17.3548 
5.5722 -0.236874 -14.8517 
5.4951e+37 -3.94805e+36 -2.52668e+38 
8.29125e-11 -6.43712e-12 -4.2544e-10 
103666 -8178.31 -543559 
0.089625 -0.0074109 -0.491863 
2.5905e+13 -2.36223e+12 -1.57821e+14 
2.52312e+13 -2.36062e+12 -1.57821e+14 
0.00452231 -0.00045299 -0.0304181 
11.7274 -0.301902 -16.3448 
11.8568 -0.372599 -21.5272 
6.97073 -0.300075 -17.5023 
4.62559 -0.226955 -13.2298 
11.3534 -0.644948 -38.1388 
8.01401e+26 -5.35831e+25 -3.22835e+27 
8.56907e-28 -6.20103e-29 -3.65682e-27 
11.7699 -0.323387 -16.5196 
10.8056 -0.342539 -17.7029 
6.0827 -0.26896 -14.3017 
5.44716 -0.254244 -13.8217 
6.0422 -0.296042 -15.9646 
5.44168e-24 -3.91341e-25 -2.15248e-23 
7.71618e+29 -6.19996e+28 -3.37429e+30 
23.42 -2.29968 -128.547 
1.22767 -0.140933 -7.9513 
1.87237e+22 -3.45821e+21 -1.84523e+23 
50.7492 -9.2506 -516.855 
nan nan nan 
nan nan nan 
9.98424 -0.351717 -16.7889 
9.67626 -0.346352 -16.7889 
9.6177 -0.346681 -16.8347 
7.50411 -0.363449 -18.0653 
10.2746 -0.678347 -34.4892 
16.0414 -1.08316 -55.1635 
1.09514 -0.0751082 -3.82322 
9.90232e+09 -7.08199e+08 -3.6407e+10 
7.6549e+10 -1.13363e+10 -6.02399e+11 
11.5187 -0.361881 -15.9235 
11.7112 -0.370986 -16.3448 
9.83835 -0.373522 -16.7889 
7.23124 -0.378317 -17.6523 
7.19662 -0.378281 -17.7538 
4.45511 -0.276666 -12.9524 
2.36238 -0.220899 -10.4 
1.93529e+07 -2.96961e+06 -1.45423e+08 
10.0582 -0.400049 -16.8347 
9.86083 -0.396419 -16.7434 
73.2231 -11.3212 -516.94 
11.1603 -0.445332 -17.552 
9.76141 -0.416372 -16.7889 
2.68137e+24 -2.77133e+23 -1.15833e+25 
2.90138e-07 -4.65714e-08 -1.98817e-06 
5.99003e+18 -1.01908e+18 -4.36633e+19 
11.5495 -0.429291 -16.0894 
9.8149 -0.443882 -16.7889 
7.57454 -0.465104 -18.1715 
1.68127 -0.135352 -5.28966 
0.387576 -0.0317226 -1.24162 
27559.5 -2960.66 -116932 
1.32177 -0.148664 -5.85788 
0.161692 -0.0184209 -0.725602 
1.04999e+08 -1.43036e+07 -5.71923e+08 
9.66878 -0.463364 -16.7434 
9.58603 -0.464318 -16.7889 
7.49933 -0.505927 -18.8939 
6.96822 -0.476524 -18.0126 
4.94474 -0.407241 -14.9959 
nan nan nan 
8.96876 -0.507996 -17.2579 
6.05732 -0.407241 -14.3348 
4.68686 -0.381146 -13.2867 
0.145876 -0.0147638 -0.519856 
1.04383e+14 -1.7581e+13 -6.35003e+14 
721.32 -204.559 -8357.93 
168.473 -55.8612 -2078.46 
1.12442e+31 -6.07157e+30 -2.22103e+32 
9.81704 -0.516066 -16.7889 
5.09196 -0.413772 -13.7602 
5.50996e+34 -6.86434e+33 -2.32395e+35 
2.04987e-23 -2.6324e-24 -8.91076e-23 
8.95388e-05 -1.40814e-05 -0.000480334 
3.23681e-30 -5.82818e-31 -2.00204e-29 
1.46597e+12 -2.84079e+11 -9.7497e+12 
10.0899 -0.545612 -16.9269 
9.67333 -0.538598 -16.7889 
7.54438 -0.591857 -19.1279 
4.71656 -0.420217 -13.3153 
2.15775 -0.236529 -7.57147 
0.117618 -0.0130925 -0.419092 
1689.24 -258.106 -8354.99 
9.91234 -0.564147 -16.7889 
7.80001 -0.631619 -19.4287 
nan nan nan 
4.8822e+37 -7.30353e+36 -2.24971e+38 
5386.56 -1069.1 -33610.1 
4.49424e+09 -1.10183e+09 -3.46877e+10 
9.84171 -0.587878 -16.7889 
9.45824 -0.576681 -16.9734 
7.95329 -0.646174 -19.0102 
7.76434 -0.645365 -19.0102 
0.509629 -0.0618766 -1.81593 
0.36191 -0.0554193 -1.63481 
4.3935e+08 -7.75442e+07 -2.30089e+09 
2.64695e+13 -5.26447e+12 -1.57821e+14 
11.4237 -0.586399 -15.761 
10.773 -0.645344 -17.602 
10.6932 -0.643346 -17.552 
9.40345 -0.609201 -16.8806 
8.91846 -0.594716 -17.0672 
8.84182 -0.606026 -17.0202 
0.673422 -0.0859539 -2.42433 
1.24757e+28 -1.65594e+27 -4.68697e+28 
inf -1.14178e+38 -inf 
4.58959e+30 -1.83966e+30 -5.47463e+31 
-1.65712e-25 -4.71834e-26 -1.35678e-24 
10.6645 -0.658735 -17.3062 
8.26317 -0.721202 -19.6137 
0.362195 -0.0600055 -1.63636 
91980.1 -19658.9 -543559 
2.3343e+19 -6.33036e+18 -1.74653e+20 
2.40309e+19 -2.56e+19 -7.07319e+20 
-3.44152e+26 -1.15226e+26 -3.18508e+27 
-6.84234e-25 -1.98443e-25 -5.47379e-24 
8.38467 -0.673074 -16.6531 
0.212432 -0.0316525 -0.825064 
2.79727e+10 -5.66871e+09 -1.49773e+11 
8.32993e+14 -3.73786e+14 -1.02804e+16 
4.65185 -0.534552 -13.3441 
1.92624 -0.271613 -6.82882 
10.992 -1.64402 -41.5181 
0.617484 -0.108874 -2.75534 
0.361956 -0.064479 -1.63647 
3.27711e-24 -6.40522e-25 -1.63161e-23 
2.37319e-25 -5.30093e-26 -1.35678e-24 
8.49395 -0.72181 -16.7434 
0.195892 -0.0353864 -0.863897 
1.67194e+09 -3.75115e+08 -9.2541e+09 
2.41565e+09 -1.47123e+09 -3.72372e+10 
10.3842 -0.738659 -16.9269 
3.94654e+25 -8.2056e+24 -1.95146e+26 
8.73443 -0.701759 -16.7889 
5.87343 -0.766139 -17.2579 
5.77737 -0.764103 -17.2098 
nan nan nan 
3.33581e+33 -6.3309e+32 -1.44198e+34 
3.04698e-13 -7.08475e-14 -1.63089e-12 
2.79845e+24 -1.82533e+24 -4.31301e+25 
8.02081 -0.9341 -20.3234 
6.02737 -0.771247 -16.8806 
4.64451 -0.609192 -13.3153 
1.05484 -0.15285 -3.32883 
5.96408e-30 -3.48032e-30 -8.04106e-29 
8.57785 -0.813478 -16.7889 
7.21946 -0.759182 -16.0476 
7.65769 -0.830192 -17.4037 
5.38718 -0.676599 -14.3348 
0.978224 -0.176038 -3.75844 
0.000455073 -8.52895e-05 -0.00181882 
3.96732e-10 -7.92201e-11 -1.69379e-09 
nan nan nan 
2.273e-21 -4.26489e-21 -9.20233e-20 
-2.64022e-16 -6.97057e-17 -1.49508e-15 
8.29528 -0.819295 -16.5639 
8.02352 -0.988746 -20.2568 
9.91584e+21 -2.18866e+21 -4.61306e+22 
1.21868e+11 -2.8709e+10 -6.02587e+11 
nan nan nan 
1.11055e-18 -4.59759e-18 -9.63954e-17 
8.01483 -0.983474 -19.6137 
0.66187 -0.124941 -2.51618 
1.9529e+29 -4.18101e+28 -8.43572e+29 
-1.89293e+22 -5.95282e+23 -1.21172e+25 
2.59532e+22 -9.04942e+21 -1.85701e+23 
9.45877e+08 -4.49066e+08 -9.25491e+09 
nan nan nan 
4.14462e+30 -2.66356e+30 -5.47463e+31 
-1.07457e-09 -1.39413e-09 -2.76218e-08 
1.25914 -0.235347 -4.48803 
0.623087 -0.118392 -2.25594 
nan nan nan 
1.16042 -0.228919 -4.36402 
9.80788e+18 -2.23118e+18 -4.26083e+19 
-255.607 -433.87 -8357.42 
-1.45965e+27 -6.69714e+26 -1.28258e+28 
8.42681 -0.916095 -16.6982 
8.69793e-20 -2.00758e-20 -3.73189e-19 
8.33312e+28 -4.2571e+28 -8.26415e+29 
-2.99849e+33 -3.1066e+33 -5.80988e+34 
-2.66899e+32 -1.92169e+32 -3.57922e+33 
-3.79699e-37 -2.43754e-37 -4.54803e-36 
7.23254 -0.896703 -16.1314 
0.223391 -0.0397208 -0.711132 
9.95893e+21 -2.53449e+21 -4.61306e+22 
1.30801e+06 -497077 -9.24517e+06 
5.35869e+07 -3.03392e+07 -5.72024e+08 
1.0247e+27 -6.8008e+26 -1.28261e+28 
-8.78997e-05 -0.000103325 -0.00188274 
5.32525 -0.942623 -16.4317 
nan nan nan 
2.59867e+20 -6.47475e+20 -1.14593e+22 
0.000271439 -0.00690439 -0.122352 
-4.68116e+32 -8.15759e+32 -1.45247e+34 
-1.16603e-09 -1.55256e-09 -2.76218e-08 
8.06833 -0.956483 -16.2161 
4.1731e+28 -8.09038e+27 -1.37762e+29 
0.851304 -0.177749 -3.05378 
0.509479 -0.11443 -1.96908 
-1.23589e+31 -1.27315e+31 -2.20533e+32 
17.019 -3.31783 -55.1635 
16498.9 -7338.3 -128283 
1.0423e+27 -7.33806e+26 -1.28258e+28 
-3.48055e+19 -4.28385e+19 -7.25397e+20 
5.64843 -0.822297 -13.3153 
0.823414 -0.180223 -2.95473 
0.133278 -0.0358637 -0.590419 
-3.78596e+26 -1.94039e+26 -3.185e+27 
8.63858 -1.06391 -16.8347 
7.88932 -1.01836 -16.0894 
17.0967 -3.47387 -55.1635 
1.74915e+28 -3.61887e+27 -5.7472e+28 
0.161736 -0.0331488 -0.51486 
-1.27353e+28 -1.33728e+28 -2.10893e+29 
9.16704 -1.13945 -16.9269 
8.30953 -1.09262 -16.5639 
5.2322 -0.821357 -12.4563 
0.420339 -0.088885 -1.35016 
5.64175e+06 -9.29628e+06 -1.42218e+08 
5.6928e+14 -1.05864e+16 -1.62557e+17 
-6.24887e-16 -6.56558e-15 -1.00989e-13 
-7.85771e+32 -9.54197e+32 -1.47391e+34 
-2.42281e+25 -1.28737e+25 -1.96434e+26 
1.49427 -0.345767 -5.1486 
nan nan nan 
-5.13006e+25 -5.24946e+25 -7.90958e+26 
-6.34918e-20 -2.41235e-20 -3.5873e-19 
5.23234 -0.856337 -12.4563 
-4.2588e+22 -5.12562e+22 -7.57324e+23 
-7.25587e+23 -8.10203e+23 -1.19613e+25 
-1.73674e-34 -8.18173e-35 -1.18763e-33 
13.5972 -1.7825 -24.9126 
13.0391 -1.72514 -24.7133 
5.32399 -0.90126 -12.8447 
5.81295 -1.13356 -16.0476 
1.71202e+13 -9.95537e+12 -1.48309e+14 
-2.7947e+32 -2.48855e+32 -3.57902e+33 
8.03783 -1.16649 -16.2587 
1.44205e+20 -5.11483e+19 -7.11753e+20 
2.03493e+10 -1.03669e+10 -1.49756e+11 
-5.69687e-08 -3.10867e-08 -4.33591e-07 
-6.90354e+24 -3.48836e+24 -4.87866e+25 
-3.58261e-27 -1.49883e-27 -2.09336e-26 
5.91793 -1.15256 -15.6413 
-1.52556e-33 -1.38637e-33 -1.91556e-32 
16.0253 -1.91426 -25.321 
0.168141 -0.0478924 -0.642204 
-1.36907e-34 -8.67409e-35 -1.16889e-33 
8.17217 -1.2477 -16.4317 
7.49984 -1.20891 -15.9235 
7.92261e-08 -3.5618e-08 -4.69077e-07 
1.67701e+24 -7.73078e+23 -1.01917e+25 
6.40425e+18 -3.17106e+18 -4.18601e+19 
8.58275e+13 -4.77942e+13 -6.34989e+14 
-3.24337e+32 -2.7257e+32 -3.60496e+33 
-1.65463e-31 -9.4131e-32 -1.24106e-30 
-8.51982e-24 -6.77883e-24 -8.79589e-23 
-2.07621e+25 -1.51361e+25 -1.96434e+26 
-1.45917e-31 -9.56295e-32 -1.241e-30 
-1.13616e+26 -6.07253e+25 -7.85737e+26 
7.25613 -1.30591 -16.5196 
nan nan nan 
nan nan nan 
-4.42962e+30 -4.29726e+30 -5.47463e+31 
-2.94591e-26 -2.60808e-26 -3.32113e-25 
-2.2412e-34 -9.98946e-35 -1.2636e-33 
6.86072e+18 -1.4037e+19 -1.75735e+20 
-1.63658e+27 -1.03074e+27 -1.29127e+28 
-1.96429e+24 -9.73113e+23 -1.21172e+25 
-9.84212e-25 -4.39572e-25 -5.44989e-24 
7.51749 -1.3673 -16.6084 
1.96238 -0.56224 -6.95248 
4.43288e+16 -5.3486e+16 -6.57946e+17 
1.05554e+20 -9.25511e+20 -1.13881e+22 
-1.97637e+31 -1.78423e+31 -2.18985e+32 
-3.33181e+32 -2.91664e+32 -3.57912e+33 
-1.06649e-32 -6.26329e-33 -7.69332e-32 
-7.10485e+24 -4.00526e+24 -4.91086e+25 
17.0574 -4.57292 -55.1635 
1.26733 -0.373999 -4.52391 
-1.15841e+33 -4.80174e+33 -5.81005e+34 
-1.80183e+31 -1.8269e+31 -2.20533e+32 
-8.64438e+31 -7.36805e+31 -8.8841e+32 
12.0263 -1.45804 -16.8806 
-1.43494e-33 -1.61573e-33 -1.91559e-32 
-7.71442e-27 -7.09365e-27 -8.40786e-26 
4.36795 -1.08272 -12.4563 
-5.91316e-37 -3.90731e-37 -4.56597e-36 
5.15379 -1.5033 -16.7889 
1.29019 -0.512213 -5.71336 
5.3717e+16 -5.94147e+16 -6.69872e+17 
-1.08821e+15 -3.67617e+15 -4.137e+16 
-3.25145e+22 -1.74812e+22 -1.95706e+23 
4.22473 -1.13687 -12.4563 
12.0316 -46.7941 -516.887 
-3.57337e+29 -3.04236e+29 -3.37429e+30 
-1.35525e+24 -1.09351e+24 -1.21175e+25 
-5.3621e+21 -4.16663e+21 -4.61352e+22 
4.37245 -1.15486 -12.4563 
0.141914 -0.0538073 -0.578404 
1.02418e+21 -4.32035e+20 -4.67274e+21 
-9.76268e+18 -2.61985e+20 -2.84701e+21 
-3.09854e-29 -2.95476e-29 -3.2298e-28 
16.1896 -2.49456 -26.4031 
5.02039 -1.29823 -13.7909 
4.74473 -1.3332 -14.1705 
0.417327 -0.12575 -1.34078 
30.3108 -194.468 -2078.41 
1.40356e+16 -2.58537e+17 -2.76296e+18 
-0 -0 -0 
-1.3432e-34 -1.10466e-34 -1.18763e-33 
-2.04109e+19 -1.63627e+19 -1.75735e+20 
-4.93286e-26 -3.16321e-26 -3.37753e-25 
5.71572 -1.4384 -15.0324 
4.25973 -1.18979 -12.4563 
0.623351 -0.247547 -2.58061 
-3.94179e+18 -4.11886e+18 -4.36644e+19 
-9.0116e-36 -6.99668e-36 -7.39304e-35 
